0.280963 0.415319 1.859837 89 90 70
-0.613422 0.369367 1.596704 59 56 56
-0.548233 0.363107 1.564858 158 159 119
-0.213121 0.376766 1.641327 182 185 186
0.041975 0.389382 1.670789 212 214 199
0.284866 0.399761 1.726556 213 215 202
-0.053979 0.387558 1.669020 114 111 101
0.176084 0.434164 1.876724 125 127 127
0.057856 0.386377 1.656456 168 170 175
-0.132784 0.395434 1.660041 89 87 80
0.037788 0.396382 1.661559 203 206 218
0.052612 0.399560 1.660677 183 186 159
0.112012 0.402463 1.677637 152 155 158
-0.116561 0.391045 1.618453 221 224 231
-0.476230 0.388632 1.603050 166 163 164
-0.363467 0.384381 1.588355 195 198 205
-0.298528 0.390128 1.609841 174 171 163
-0.340220 0.387368 1.602364 68 64 64
0.140286 0.410571 1.685794 103 106 103
-0.519453 0.382508 1.553448 89 83 77
-0.300933 0.395583 1.609360 110 105 108
0.244511 0.420455 1.708790 125 130 147
0.050221 0.412084 1.659817 166 161 157
-0.362424 0.391959 1.594512 100 98 101
0.011661 0.413143 1.653461 91 94 100
0.153971 0.421151 1.682828 191 191 195
0.185119 0.424101 1.697048 122 122 120
-0.014249 0.415681 1.649715 120 122 134
0.050358 0.421198 1.656037 150 151 142
-0.564283 0.390843 1.537781 89 94 74
0.017582 0.424489 1.650928 197 198 193
-0.002904 0.427055 1.651813 202 204 207
0.047204 0.428024 1.651832 195 196 182
-0.378765 0.412489 1.587958 177 180 183
-0.594830 0.407936 1.565671 88 88 86
-0.519688 0.403364 1.535539 214 219 230
-0.386210 0.418777 1.588497 111 111 111
-0.348800 0.417538 1.597398 83 83 76
-0.303142 0.425527 1.601962 138 138 143
-0.288829 0.422213 1.605274 205 212 220
0.092413 0.439477 1.635685 110 110 113
-0.504597 0.413504 1.556402 122 124 123
-0.037351 0.438725 1.635468 140 138 141
-0.576243 0.415333 1.550951 116 119 130
-0.564902 0.411840 1.534463 105 104 103
-0.527609 0.413251 1.544569 124 125 131
-0.396321 0.568902 2.103101 173 175 186
-0.321848 0.430202 1.600241 131 126 119
-0.601011 0.426888 1.570637 132 124 125
-0.588762 0.415088 1.551699 175 175 186
-0.247073 0.439394 1.611170 129 130 110
0.188264 0.460842 1.675336 213 213 214
-0.518988 0.415923 1.545990 183 184 194
-0.379111 0.435742 1.587840 88 84 87
-0.438544 0.583441 2.131583 162 164 180
-0.408056 0.435801 1.591076 118 120 111
-0.168482 0.453141 1.639476 124 122 122
-0.112109 0.446799 1.609717 165 171 181
0.177173 0.468631 1.682948 85 88 106
-0.349376 0.442801 1.587437 145 141 140
-0.259783 0.450864 1.612802 87 88 93
-0.111008 0.454845 1.600394 136 135 136
-0.414358 0.441580 1.576083 109 108 104
-0.357015 0.450863 1.589229 159 162 172
-0.524699 0.434484 1.534852 66 64 67
-0.423438 0.451460 1.579731 108 109 113
-0.540764 0.441505 1.546313 134 134 130
-0.372774 0.456208 1.588919 129 123 126
-0.289672 0.598228 2.049811 193 196 199
-0.399943 0.459677 1.583222 188 195 196
-0.416513 0.464438 1.568788 200 205 208
-0.307389 -0.408414 2.071989 196 191 192
0.736545 -0.572904 2.081812 186 193 192
-0.418378 -0.276638 1.689937 68 57 44
0.032312 -0.363414 1.847716 159 149 135
-0.018623 -0.340264 1.824739 106 102 89
-0.431045 -0.237579 1.698388 207 206 205
-0.410004 -0.227839 1.685522 65 54 50
-0.006790 -0.328514 1.836160 189 187 181
-0.366726 -0.229490 1.673886 232 229 231
-0.013066 -0.272782 1.779145 87 85 75
-0.398785 -0.192032 1.679519 90 79 71
-0.144043 -0.236657 1.789514 170 162 157
-0.057039 -0.238262 1.767106 128 127 126
0.135459 -0.266648 1.762982 200 201 194
-0.431390 -0.163331 1.704321 111 109 102
0.054038 -0.245717 1.784499 42 42 38
-0.063757 -0.192457 1.794167 59 59 57
-0.448252 -0.118840 1.718870 77 77 73
0.509350 -0.283356 1.898284 110 106 106
-0.358155 -0.128804 1.707413 82 75 69
-0.423548 -0.112866 1.698301 210 209 211
-0.462243 -0.102130 1.717146 189 189 188
0.584746 -0.274385 1.950012 123 123 116
0.094786 -0.178834 1.785826 152 153 154
0.346135 -0.225313 1.915239 45 43 36
0.501525 -0.250798 1.877475 175 179 149
0.427444 -0.215254 1.828634 77 72 82
-0.349494 -0.131180 2.096584 198 198 198
-0.178923 -0.118752 1.738489 192 189 192
0.379284 -0.210536 1.933283 111 110 109
0.398103 -0.209501 1.922562 172 173 174
0.090967 -0.152378 1.829959 107 104 96
-0.411204 -0.073331 1.699377 109 104 96
-0.627975 -0.028865 1.698564 44 42 34
-0.464659 -0.048356 1.711438 197 196 198
-0.144326 -0.100372 1.868678 82 73 73
-0.125269 -0.095978 1.764059 155 148 146
0.213035 -0.119163 1.852093 162 161 159
0.322058 -0.137592 1.883400 116 114 103
-0.587343 -0.005940 1.679569 52 49 43
-0.042689 -0.078585 1.797861 167 164 157
0.267195 -0.116086 1.863603 62 56 63
0.395554 -0.134158 1.896843 182 182 179
-0.475564 -0.009760 1.710390 108 107 107
-0.458236 -0.010493 1.702145 52 48 50
-0.384611 -0.023698 1.653504 196 197 201
-0.031471 -0.065225 1.769890 62 60 53
0.464986 -0.126458 1.883074 174 173 168
-0.189511 -0.032515 1.688309 100 95 90
0.014461 -0.056214 1.759638 58 54 51
0.186335 -0.074883 1.824866 85 79 74
0.337359 -0.095638 1.867583 91 95 94
-0.258183 -0.012126 1.643790 125 122 118
0.411855 -0.089054 1.818902 195 195 196
-0.202638 -0.010861 1.675676 179 175 178
-0.158527 -0.007016 1.721376 64 61 60
-0.072011 -0.018018 1.767601 57 54 52
-0.329269 0.015862 1.647949 196 196 197
-0.312072 0.014814 1.658691 119 119 120
0.571013 -0.079161 1.936740 59 56 52
0.129518 -0.019845 1.805453 110 103 103
0.308048 -0.026221 1.831925 127 129 106
-0.307066 0.039641 1.620719 167 171 178
0.118275 -0.003555 1.798073 193 195 186
-0.260856 0.043700 1.679238 73 67 57
0.304480 -0.003254 1.819032 69 69 67
-0.635090 0.085925 1.670015 207 207 207
-0.653415 0.097467 1.661404 39 38 37
-0.080412 0.048871 1.694996 197 197 196
0.103458 0.037223 1.779996 117 117 113
0.173613 0.027617 1.810454 96 95 96
-0.619865 0.103713 1.661470 201 199 196
-0.122378 0.066963 1.682482 170 170 171
-0.343843 0.092508 1.642788 148 148 147
-0.143432 0.079219 1.680350 72 68 61
-0.083857 0.075740 1.790511 67 70 69
0.365375 0.035703 1.823030 126 128 126
-0.195379 0.080216 1.682032 142 142 141
-0.088465 0.076120 1.671309 229 228 229
0.224168 0.056528 1.821287 128 128 121
-0.157559 0.093259 1.694512 118 115 112
-0.075471 0.088709 1.796196 128 126 125
0.030025 0.082409 1.741793 83 81 68
0.375504 0.062059 1.815926 86 81 72
0.324772 0.070769 1.853945 205 204 207
0.085831 0.096164 1.805856 187 184 177
-0.171562 0.125995 1.715102 98 97 79
-0.544468 0.157342 1.642925 196 196 201
-0.281907 0.148079 1.701272 89 86 87
0.024909 0.118904 1.726263 60 58 57
0.249252 0.118002 1.762311 47 55 77
0.196436 0.130523 1.775094 126 118 118
-0.565715 0.175470 1.629718 197 196 198
-0.043071 0.161875 1.674773 141 141 143
-0.303967 0.187441 1.661985 129 131 134
-0.026212 0.180873 1.831106 214 211 207
-0.558333 0.207513 1.623457 166 162 162
0.129465 0.183325 1.746422 133 134 145
-0.552862 0.215995 1.619645 52 53 50
0.189203 0.195384 1.726621 203 200 198
0.523410 0.194453 1.847653 132 132 130
-0.336070 0.224944 1.660616 139 139 142
-0.053284 0.214933 1.690633 164 164 159
-0.266736 0.227554 1.657032 68 69 63
0.269643 0.237440 1.832032 68 70 88
-0.036149 0.267621 1.864701 86 87 89
-0.357829 0.258985 1.663988 99 98 92
0.151267 0.253224 1.729050 153 156 159
0.170274 0.251965 1.733233 197 200 205
0.315260 0.262084 1.833201 142 138 127
-0.452068 0.261023 1.590266 100 101 106
0.024112 0.247617 1.677461 50 48 43
-0.808173 0.386911 2.180554 82 81 79
-0.040616 0.273292 1.686779 51 52 56
-0.248120 0.275991 1.634663 174 171 173
0.169970 0.285096 1.726217 200 200 197
0.056254 0.278779 1.678228 86 86 81
-0.553186 0.290628 1.589351 195 194 201
0.000000 0.000000 2.000000 208 209 213
0.064100 0.290790 1.672006 168 163 162
0.162511 0.307127 1.714520 41 43 38
-0.270962 0.302578 1.611624 75 76 80
-0.215473 0.305189 1.634020 205 205 207
-0.190907 0.304711 1.649996 48 47 42
0.160962 0.317851 1.729611 41 41 41
0.346363 0.314948 1.773284 130 126 115
-0.440188 0.315837 1.619877 135 135 127
-0.358156 0.316552 1.640333 195 195 204
-0.315573 0.324238 1.634148 198 197 201
-0.213784 0.339745 1.643613 40 39 41
-0.063140 0.347267 1.689631 209 209 216
-0.414634 0.341472 1.620167 206 207 215
-0.117586 0.352013 1.663248 86 87 73
-0.053738 0.365390 1.688809 118 118 118
0.083434 0.367635 1.680594 217 220 206
-0.577380 0.366276 1.578824 175 175 165
0.286897 0.403499 1.745032 217 219 203
0.047994 0.394504 1.664288 127 128 137
-0.549332 0.367626 1.551998 224 225 232
-0.139651 0.398519 1.671282 98 97 89
-0.585209 0.394200 1.559509 88 88 100
-0.548402 0.387002 1.546278 98 97 90
-0.520643 0.389169 1.552818 71 71 70
-0.570916 0.418954 1.557287 146 146 163
-0.532176 0.410123 1.530538 98 103 113
-0.441859 0.580683 2.133595 172 174 183
0.045957 0.547250 1.925691 131 131 132
-0.383626 0.449175 1.587741 194 199 198
0.016339 -0.378325 1.850630 106 103 101
0.081627 -0.372530 1.878881 106 103 91
-0.382815 -0.247925 1.681720 133 127 110
-0.049302 -0.320544 1.804530 44 44 39
-0.099197 -0.264128 1.775716 189 189 191
-0.066813 -0.268459 1.804213 81 78 77
-0.048278 -0.250803 1.754207 35 37 37
-0.456505 -0.174669 1.717975 133 132 136
0.137142 -0.273686 1.826923 225 227 225
0.135039 -0.270971 1.758404 202 203 201
-0.026693 -0.236563 1.879009 45 43 39
0.098903 -0.260060 1.862221 33 33 32
-0.464842 -0.206003 2.247672 120 112 106
-0.072132 -0.213894 1.884897 122 119 109
0.412630 -0.300245 1.915825 217 217 232
-0.472800 -0.128555 1.722695 124 121 126
0.377762 -0.283061 1.927400 33 35 35
0.364344 -0.269440 1.871179 221 221 216
-0.403882 -0.117704 1.693575 84 77 77
-0.624732 -0.077165 1.639789 71 67 68
0.462292 -0.261839 1.884367 92 89 85
-0.369774 -0.155944 2.123254 152 153 158
0.048768 -0.178818 1.759486 160 159 155
0.069992 -0.177475 1.838850 107 108 100
-0.308807 -0.103663 1.699665 47 41 37
0.035703 -0.152204 1.764800 21 21 21
-0.613835 -0.056095 1.695379 43 41 35
-0.105401 -0.138517 1.794797 122 124 127
-0.553085 -0.056438 1.681923 51 50 47
-0.409656 -0.078370 1.693534 113 104 96
-0.240118 -0.093669 1.696860 85 80 80
0.061087 -0.135754 1.772822 126 126 119
-0.584320 -0.043023 1.668638 192 193 193
-0.441770 -0.058227 1.700649 89 83 75
-0.226491 -0.073463 1.682596 212 210 213
-0.032333 -0.109511 1.773659 130 128 124
0.375964 -0.156006 1.876800 28 28 25
-0.638057 -0.012711 1.682817 185 180 180
-0.404713 -0.041735 1.680916 112 108 101
-0.174109 -0.065964 1.692686 188 184 185
-0.614002 -0.029493 2.194075 39 39 35
-0.117305 -0.073341 1.763433 72 71 73
-0.414918 -0.025135 1.674355 137 137 136
-0.459203 -0.008400 1.698573 56 51 52
0.313766 -0.104849 1.877030 18 19 18
-0.434277 -0.003564 1.664389 106 100 99
-0.089513 -0.049663 1.778419 74 70 65
0.294485 -0.097321 1.864582 17 16 17
0.160315 -0.067954 1.813926 202 202 197
0.424557 -0.095568 1.880371 144 143 155
-0.291980 -0.010670 1.653981 97 92 88
-0.435097 0.013703 1.646621 211 212 213
-0.288236 0.012243 1.626384 177 177 176
-0.333276 0.029646 1.653732 119 117 109
-0.288926 0.023365 1.660546 213 213 216
0.145147 -0.012451 1.814626 90 88 76
0.314431 -0.026725 1.831442 208 210 211
0.508656 -0.043108 1.917376 34 34 44
-0.651103 0.081308 1.650462 182 178 177
-0.292788 0.040299 1.655584 103 100 94
0.193063 -0.001819 1.827696 200 200 199
0.241057 -0.001477 1.840493 142 137 113
-0.271036 0.051753 1.687031 148 150 152
-0.100343 0.035984 1.680332 115 112 102
-0.690174 0.093245 1.338134 65 65 53
-0.235781 0.063370 1.681487 134 133 130
-0.141569 0.054110 1.665732 118 119 117
0.431171 0.012522 1.814605 83 79 80
0.636121 -0.004930 1.944130 44 41 39
-0.256352 0.069338 1.687744 92 89 88
0.096933 0.040547 1.763901 198 195 187
0.465069 0.025826 1.872935 190 191 188
-0.193426 0.081238 1.681900 142 142 141
0.288556 0.047014 1.773364 117 117 112
-0.528245 0.116395 1.642717 197 198 208
0.201333 0.072117 1.783080 201 199 201
0.511739 0.054040 1.854709 198 198 196
-0.165529 0.129443 1.717570 105 100 89
0.126859 0.117560 1.761304 55 52 51
-0.629308 0.162485 1.641121 92 90 82
-0.533917 0.157769 1.621441 95 88 95
-0.114232 0.132630 1.672489 189 191 197
-0.067724 0.152677 1.678734 80 79 94
0.123944 0.165225 1.747589 188 190 188
-0.557733 0.189646 1.630984 50 51 45
-0.611170 0.203204 1.630942 198 203 211
-0.628512 0.207860 1.623161 63 63 57
-0.130595 0.198658 1.691246 130 129 127
-0.636242 0.224300 1.628498 151 148 143
0.215896 0.201695 1.736743 176 173 180
0.566407 0.191153 1.834464 175 179 177
-0.656790 0.233754 1.634419 64 63 57
-0.613430 0.230140 1.614127 191 195 193
-0.633226 0.241625 1.626877 67 63 54
0.533145 0.215792 1.848691 33 33 30
0.313952 0.244071 1.784823 47 46 40
-0.419900 0.257781 1.600112 109 106 98
0.052059 0.258609 1.675448 72 75 88
0.116876 0.257173 1.688507 190 194 210
-0.349198 0.280551 1.649153 169 168 177
0.058283 0.272757 1.672353 101 98 100
-0.308990 0.288691 1.628511 217 216 221
-0.132944 0.343714 1.916036 179 179 188
0.422540 0.308611 1.831383 51 51 41
-0.292132 0.307034 1.631147 98 99 98
-0.188956 0.305808 1.643625 57 57 58
0.205204 0.346965 1.855280 61 62 64
0.232515 0.338738 1.739540 211 213 217
-0.450573 0.332288 1.616571 174 174 180
-0.147836 0.330405 1.637132 196 193 184
0.334440 0.353059 1.767447 71 63 61
0.643093 0.423223 2.001560 127 128 131
-0.319336 0.343800 1.604633 239 240 238
0.002057 0.354808 1.698054 37 37 34
-0.408031 0.358647 1.624105 149 145 135
-0.053805 0.434861 1.921217 173 177 192
-0.472728 0.388795 1.603196 199 203 206
-0.221565 0.410663 1.646632 65 64 58
-0.554932 0.387963 1.543554 80 80 78
-0.500245 0.391669 1.561321 200 200 200
-0.373801 0.404419 1.595992 180 179 177
-0.375223 0.557357 2.088617 130 131 131
0.032809 0.440017 1.645914 126 122 118
-0.586438 0.412296 1.555616 208 210 219
-0.198656 0.538814 1.997133 205 210 216
-0.292404 -0.392551 2.060873 88 77 64
-0.411616 -0.225780 1.682482 57 50 44
0.061855 -0.308249 1.796239 183 180 182
-0.365106 -0.199431 1.670563 112 107 100
-0.386866 -0.198337 2.140961 124 121 126
-0.307041 -0.101184 1.689853 80 77 70
0.102647 -0.144490 1.795536 28 26 24
-0.536836 -0.019313 1.700418 31 30 30
0.201862 -0.105363 1.836133 164 160 153
-0.207270 -0.054456 1.709571 218 218 225
0.305561 -0.116887 1.823738 168 165 164
-0.652780 0.005251 1.692389 45 43 40
-0.532732 0.001443 1.703980 57 50 45
-0.169355 -0.023144 1.897041 95 89 82
-0.451139 0.033963 1.665859 77 75 68
-0.415546 0.024510 1.643712 149 149 147
-0.213268 0.034694 1.661774 195 194 197
-0.310279 0.068298 1.644992 95 95 87
-0.110633 0.049774 1.765870 121 119 118
-0.090104 0.064162 1.670986 241 240 242
0.441414 0.034616 1.843393 189 194 198
-0.526844 0.117757 1.637035 210 212 219
0.450897 0.073115 1.853873 201 204 204
-0.272114 0.137484 1.708966 71 65 61
-0.087711 0.138906 1.660804 217 221 228
-0.308207 0.174566 1.676724 162 158 156
-0.063207 0.189825 1.692402 83 81 71
-0.626544 0.225716 1.618359 205 203 205
0.005746 0.245554 1.680039 51 49 47
0.223902 0.251755 1.735963 158 159 155
-0.308874 0.268675 1.639483 106 111 114
-0.013756 0.282558 1.668620 199 201 208
-0.551730 0.287739 1.594363 181 180 180
-0.598742 0.299638 1.616292 184 182 190
0.212259 0.306957 1.741075 223 222 224
-0.284513 0.309834 1.630657 91 90 91
-0.088982 0.313725 1.675549 65 66 59
-0.058202 0.421658 2.034670 214 214 206
0.177812 0.385214 1.730193 50 51 49
-0.530892 0.403730 1.552279 229 230 237
-0.014216 -0.321616 1.834716 179 175 172
-0.109738 -0.246497 1.811207 36 36 35
-0.177071 -0.213683 1.830363 63 59 50
0.370464 -0.222818 1.897754 63 66 61
-0.488403 -0.084571 1.740367 28 29 23
-0.268423 -0.097203 1.674386 53 48 45
0.124966 -0.142682 1.816794 29 28 24
-0.396930 -0.037399 1.676561 120 116 108
0.161224 -0.098716 1.776659 158 158 154
-0.163140 -0.022770 1.711136 76 76 75
0.317339 -0.047239 1.837649 196 198 179
-0.539114 0.051619 1.673049 139 130 120
-0.301322 0.065414 1.651891 136 135 131
-0.268518 0.108081 1.691664 130 130 131
0.354953 0.081996 1.841033 52 49 45
-0.194278 0.148565 1.680223 98 97 96
-0.063031 0.185874 1.679834 79 79 76
-0.193299 0.231039 1.688337 135 130 119
-0.032963 0.219070 1.692754 158 155 155
0.069489 0.225838 1.698159 191 192 197
-0.092584 0.256969 1.664139 213 211 216
-0.204556 0.289923 1.652160 135 135 128
-0.214634 0.303198 1.632316 219 219 224
-0.605469 0.327751 1.623331 159 153 155
-0.281484 0.314389 1.614858 77 78 77
-0.548828 0.357088 1.597652 51 51 52
-0.099384 -0.157242 1.815987 29 29 28
-0.003350 -0.154098 1.792809 25 25 22
-0.261904 -0.008286 1.670908 78 73 66
-0.206487 0.036988 1.652237 187 187 188
-0.368869 0.072305 1.708375 205 207 211
-0.091894 0.060047 1.682805 243 243 246
-0.519455 0.135804 1.624813 220 223 229
-0.210330 0.159537 1.706746 110 103 94
-0.320386 0.202514 1.659116 202 202 204
-0.270698 -0.336362 2.039264 185 184 172
-0.003109 -0.264304 1.750659 76 71 69
0.120161 -0.244971 1.783040 148 149 132
0.520236 -0.296725 1.900156 90 89 90
0.083087 -0.192520 1.782951 163 164 166
0.025393 -0.169531 1.762778 113 112 102
0.093749 -0.174687 1.771434 125 125 122
0.541141 -0.248965 1.892128 94 88 81
-0.364295 -0.091153 1.682261 205 205 208
-0.283369 -0.088637 1.685425 136 132 132
0.150369 -0.003347 1.807650 205 207 195
0.321427 -0.018121 1.816897 208 210 209
0.020296 0.048306 1.748587 63 57 53
0.589256 0.001585 1.957616 158 157 160
0.436676 0.013889 1.814404 77 76 75
0.093297 0.079219 1.753404 103 101 98
0.243185 0.085339 1.756774 133 136 141
0.324130 0.091893 1.527435 75 74 63
0.024649 0.162294 1.714120 50 50 44
0.183989 0.251466 1.731718 89 89 88
-0.035702 0.263845 1.678558 87 90 91
0.278274 0.305314 1.841776 189 191 170
-0.322249 0.302534 1.632944 131 132 135
-0.136652 0.305542 1.655468 170 165 155
0.551609 0.351237 1.823731 166 163 162
0.553449 0.354159 1.823806 166 163 162
0.190284 0.357952 1.726702 122 118 115
0.186958 0.367990 1.728466 182 182 175
0.059896 0.415671 1.890895 185 182 181
0.293819 0.415301 1.858367 194 192 182
-0.187145 0.447670 1.644771 191 190 186
-0.413577 -0.323461 1.686804 106 97 90
0.057035 0.418960 1.892267 180 178 175
-0.000625 0.427144 1.906149 73 74 64
0.082041 -0.244427 1.779192 81 80 89
-0.314541 -0.137942 1.681710 66 63 55
0.174638 0.026768 1.813113 96 95 96
0.053871 0.067983 1.751508 180 175 162
-0.373104 0.113778 1.638817 188 191 195
0.407286 0.101800 1.835326 157 160 159
-0.360367 0.229771 1.646447 202 202 206
-0.648667 0.260122 1.627719 45 44 36
-0.002420 0.243577 1.673645 65 61 62
-0.196725 0.285004 1.655515 200 198 199
-0.356491 0.314551 1.639039 196 198 198
-0.149239 0.364991 1.928715 64 65 66
-0.572052 0.320601 1.599500 77 75 72
-0.148256 0.366323 1.665682 83 83 68
-0.226740 0.563576 2.014449 189 194 212
-0.030944 -0.074204 1.736400 158 155 154
0.116486 0.071486 1.765326 212 211 212
-0.127660 0.113722 1.691080 31 30 26
-0.574152 0.183611 1.617499 191 190 191
-0.021685 0.375035 1.895953 206 205 205
0.007610 -0.147919 1.755855 16 16 16
0.237756 -0.030387 1.810257 37 37 41
-0.073728 0.335307 1.678267 215 214 214
-0.734364 -0.463060 1.780886 53 52 43
-0.727372 -0.462109 1.784958 124 123 116
-0.739886 -0.401472 1.772410 82 87 81
-0.437148 -0.351496 1.722981 215 217 215
-0.423590 -0.349207 1.714331 206 208 211
-0.440253 -0.441015 2.182956 213 215 218
-0.445502 -0.328596 1.717320 219 221 226
-0.361802 -0.350875 1.767417 92 90 98
-0.368957 -0.320147 1.682934 124 113 141
-0.354629 -0.319747 1.698191 233 234 241
0.056374 -0.389507 1.852452 100 93 71
-0.489954 -0.420549 2.194197 114 108 109
-0.455637 -0.316383 1.712317 221 222 233
-0.380526 -0.312542 1.684549 133 122 111
-0.292278 -0.359226 1.855922 150 149 137
-0.463424 -0.312528 1.715181 158 153 163
-0.454751 -0.414579 2.191676 239 239 243
-0.373365 -0.311347 1.705697 225 226 218
-0.026596 -0.339811 1.807396 126 118 107
-0.030993 -0.337223 1.813116 67 61 61
-0.384712 -0.281372 1.683733 206 203 207
-0.011257 -0.333592 1.824089 129 127 134
-0.038732 -0.324227 1.815018 57 52 51
0.144413 -0.338374 1.866923 151 150 140
-0.383087 -0.262854 1.685371 230 229 234
-0.359870 -0.262501 1.690473 126 110 98
-0.382022 -0.255855 1.688101 114 107 92
-0.374156 -0.254242 1.686969 127 114 117
0.092354 -0.306036 1.784042 108 108 104
0.144831 -0.322580 1.850397 71 66 56
0.044762 -0.291958 1.770757 210 211 212
0.147982 -0.322968 1.868029 63 61 85
0.179166 -0.318899 1.872828 69 63 65
0.071035 -0.287414 1.772504 89 88 79
0.045429 -0.281600 1.771386 104 102 93
0.118304 -0.288889 1.792911 202 205 214
0.519211 -0.348012 2.011064 190 185 195
0.770857 -0.382620 2.098790 98 98 86
-0.306959 -0.235279 1.677480 161 148 137
0.001886 -0.266516 1.747365 76 75 68
-0.293314 -0.245817 1.762532 106 102 91
0.021431 -0.266221 1.767632 81 81 79
0.511832 -0.334888 1.942521 196 198 182
0.462697 -0.324791 1.938852 81 80 82
0.587939 -0.334757 2.009018 222 223 234
0.765602 -0.374063 2.109855 51 50 44
-0.153560 -0.250800 1.795821 64 59 61
0.431765 -0.330078 2.060889 210 211 212
0.523656 -0.324159 2.008995 142 140 175
-0.360553 -0.214431 1.669907 212 210 208
0.177380 -0.296154 2.012847 192 192 184
0.596016 -0.321486 2.007984 151 151 143
0.762675 -0.358156 2.116430 54 53 48
-0.049915 -0.241666 1.765562 112 114 108
0.524195 -0.299075 1.893156 205 208 192
0.588518 -0.320385 2.007991 106 104 98
-0.094193 -0.237978 1.788430 151 153 148
0.570522 -0.309750 1.933982 69 69 65
-0.376183 -0.274998 2.227004 103 89 84
-0.037295 -0.271563 2.051992 48 48 40
0.118897 -0.248975 1.786998 154 156 150
-0.411466 -0.194546 1.695873 186 190 188
0.148487 -0.245382 1.792983 141 139 133
-0.187117 -0.221515 1.804917 85 82 79
0.534903 -0.279726 1.904432 175 171 166
0.131711 -0.236056 1.793998 71 68 67
-0.064800 -0.221018 1.787530 68 66 68
0.448859 -0.264386 1.883739 205 206 200
0.523756 -0.272505 1.912455 190 192 196
0.545081 -0.278925 1.922886 92 85 83
-0.295009 -0.176620 1.657972 163 161 163
-0.062304 -0.215064 1.810201 152 152 148
0.540793 -0.262157 1.930605 174 181 180
-0.579215 -0.166643 1.757207 97 91 82
0.483785 -0.255007 1.888828 146 146 125
0.517350 -0.262840 1.901628 218 217 217
0.595589 -0.269031 1.955876 110 111 105
-0.177278 -0.233918 2.145245 56 53 57
-0.004146 -0.197565 1.754206 66 66 65
-0.323088 -0.165569 1.665217 180 179 181
0.450354 -0.241231 1.894584 188 189 184
0.346596 -0.227085 1.883970 204 204 193
3.580567 -4.411344 41.140392 67 65 70
-0.325403 -0.213668 2.253071 96 96 85
0.128433 -0.188986 1.798942 184 181 178
0.358812 -0.217123 1.883179 77 72 81
0.375295 -0.217619 1.875921 178 177 173
0.344588 -0.216817 1.891922 155 158 157
0.358123 -0.212846 1.887728 177 178 179
0.002304 -0.209862 2.044658 66 64 56
-0.327708 -0.194009 2.272552 69 67 60
-0.311389 -0.196373 2.264277 181 182 188
0.136101 -0.171549 1.790671 65 61 63
-0.555267 -0.125354 1.743620 126 116 115
-0.683353 -0.172499 2.362586 145 138 125
-0.379447 -0.183846 2.295791 167 168 168
-0.069763 -0.155206 1.808484 87 89 90
0.153205 -0.165953 1.812039 125 122 113
-0.503926 -0.115369 1.745753 38 38 36
0.608699 -0.214449 2.001183 122 122 115
-0.224337 -0.130823 1.730612 172 173 173
-0.219184 -0.118828 1.718087 115 113 113
0.391813 -0.174110 1.940175 82 82 76
0.525734 -0.182749 1.997926 74 69 81
-0.287064 -0.106675 1.687368 133 134 131
0.064193 -0.146679 1.966136 107 98 93
-0.496651 -0.094171 1.728539 36 36 35
-0.174894 -0.110598 1.732187 172 177 177
0.302987 -0.146630 1.887434 32 32 32
-0.211453 -0.100656 1.690815 215 215 215
0.337444 -0.142302 1.888666 73 76 83
0.480050 -0.156454 1.915795 102 105 124
-0.556340 -0.118309 2.361170 209 212 215
-0.277693 -0.093447 1.704228 137 137 139
-0.225847 -0.096632 1.695718 119 118 111
0.149294 -0.127284 1.876364 44 43 51
0.633639 -0.166466 1.994347 82 87 76
-0.182841 -0.096619 1.718287 104 103 105
0.084665 -0.116452 1.782014 75 77 79
-0.323415 -0.083127 1.677593 114 117 118
-0.259085 -0.084730 1.695327 87 88 89
-0.192991 -0.086340 1.703141 217 217 217
-0.423290 -0.072893 1.701346 184 184 184
-0.215967 -0.081383 1.693148 112 110 110
0.331482 -0.130345 1.878488 140 145 112
0.215691 -0.113083 1.840605 166 168 179
0.082034 -0.102754 1.784242 76 79 76
0.097386 -0.102204 1.790082 63 62 61
0.395781 -0.120992 1.854453 139 140 146
-0.694654 -0.047860 1.709227 179 181 179
-0.568269 -0.055706 1.684535 64 61 55
0.227728 -0.110019 1.839261 75 69 65
-0.219398 -0.070197 1.686404 173 173 173
0.276594 -0.110653 1.880037 102 96 84
0.449894 -0.116920 1.875520 113 113 111
-0.103705 -0.087871 2.046642 50 46 39
0.210715 -0.095451 1.831766 220 219 220
0.250369 -0.098763 1.972407 67 66 74
0.111654 -0.083003 1.795976 69 67 61
0.443730 -0.101450 1.890119 212 212 207
-0.175470 -0.058991 1.698873 119 120 113
-0.183474 -0.074637 1.936895 64 61 58
-0.011701 -0.068707 1.768313 85 81 77
-0.178524 -0.055022 1.700392 119 120 113
0.256254 -0.087287 1.846200 162 153 143
0.331941 -0.089049 1.861824 120 119 115
-0.327648 -0.042931 1.654403 112 115 115
0.457175 -0.098288 1.876655 195 198 202
-0.567724 -0.025375 1.653023 177 173 162
0.001757 -0.058661 1.771928 88 88 89
0.624005 -0.108875 2.012743 98 95 85
-0.073129 -0.056624 1.762031 176 172 170
0.685692 -0.101828 2.014046 130 129 124
-0.171094 -0.063335 2.446701 72 69 64
0.692074 -0.096208 2.025749 118 118 111
-0.007670 -0.046138 1.772133 67 63 56
-0.174742 -0.025756 1.698501 159 158 154
-0.867205 0.004008 2.376160 31 34 25
-0.473806 -0.008899 1.707499 152 153 157
0.135096 -0.040504 1.784196 123 122 114
-0.078519 -0.027484 1.757902 87 82 80
0.660168 -0.066775 1.994761 66 66 72
0.019700 -0.029967 1.768797 63 61 58
-0.168701 -0.012209 1.692746 59 55 55
0.512754 -0.054150 1.936026 106 106 96
-0.219714 -0.006873 1.675048 128 123 114
-0.209730 -0.010823 1.669215 215 217 220
-0.092088 -0.017899 1.752697 79 76 74
-0.024116 -0.016967 1.752543 183 181 180
0.260514 -0.029615 1.857544 52 50 66
-0.173351 -0.005458 1.504582 87 86 86
-0.069037 -0.008429 1.750396 84 85 78
0.118346 -0.021899 1.794606 72 69 66
0.146280 -0.022324 1.802031 189 191 188
0.017082 -0.011926 1.760293 200 200 196
0.042913 -0.013007 1.768229 134 132 125
0.173235 -0.020776 1.817441 93 93 101
-0.219717 0.004876 1.668044 139 136 131
0.031974 -0.007180 1.761081 82 80 77
0.532247 -0.033510 1.919469 65 61 56
-0.218299 0.005263 1.669426 136 136 126
-0.062237 -0.002819 1.756317 179 176 175
-0.227931 0.005960 1.653617 198 201 207
0.013682 -0.003854 1.750639 69 67 60
-0.206633 0.011337 1.664459 211 213 216
-0.085775 0.006735 1.747734 52 51 47
0.231777 -0.009455 1.958340 207 211 215
-0.217237 0.014491 1.665709 211 215 225
-0.212940 0.013708 1.678930 222 226 234
0.161249 -0.003653 1.808098 140 137 139
0.564611 -0.022610 1.942693 40 41 37
0.140791 0.006438 1.795281 127 121 118
0.495296 -0.014091 1.889147 150 149 146
0.192896 0.007327 1.815942 193 195 209
0.246942 0.001781 1.825723 178 176 166
0.519040 -0.007222 1.904505 67 68 68
0.520220 -0.005684 1.890761 178 179 169
0.590493 -0.000139 1.954808 67 68 80
0.143684 0.024409 1.791344 126 122 115
-0.644649 0.058092 1.681706 143 141 134
0.026763 0.029498 1.753369 112 109 107
0.624269 0.003041 1.951432 79 78 77
-0.281795 0.045395 1.656302 171 172 173
-0.189980 0.042425 1.672807 135 135 135
-0.195818 0.061636 2.232287 194 199 200
0.039315 0.035638 1.756866 172 171 169
-0.084209 0.043147 1.686858 74 75 68
0.004987 0.039182 1.744307 56 54 56
0.125242 0.032147 1.786018 190 190 191
-0.288036 0.053912 1.661149 168 169 170
-0.315654 0.063915 1.643891 119 120 120
-0.076305 0.047856 1.687680 84 82 78
0.039757 0.045944 1.742999 90 89 85
0.005435 0.049033 1.742035 125 125 123
0.085098 0.049567 1.747751 128 129 120
0.496191 0.029944 1.873699 91 88 90
0.534594 0.033503 1.905565 69 67 62
-0.055220 0.063069 1.825482 63 65 65
0.225469 0.048534 1.801154 95 96 95
-0.308502 0.069873 1.659905 102 102 100
-0.064028 0.061034 1.704913 47 47 45
0.563359 0.039340 1.989921 128 129 137
0.098769 0.057980 1.766303 211 211 202
0.139247 0.063695 1.931638 113 111 103
-0.235862 0.089965 1.689803 114 116 108
-0.036129 0.080908 1.733095 53 52 51
-0.183982 0.093142 1.690575 79 81 80
-0.121442 0.110497 1.977773 35 35 36
0.046617 0.087443 1.740226 191 191 189
0.381982 0.081425 1.850200 69 68 55
0.058340 0.105239 1.909736 94 93 92
0.127821 0.092363 1.768176 189 189 189
0.138286 0.093524 1.771076 213 215 216
0.145822 0.107244 1.939568 88 89 92
0.048707 0.096575 1.731559 189 188 189
0.383653 0.093551 1.856399 133 136 131
0.512867 0.097145 1.987637 135 137 139
-0.294700 0.158216 2.161123 159 160 161
0.022408 0.111892 1.727631 68 66 63
0.163394 0.110795 1.783576 126 122 118
0.537908 0.103172 1.864070 134 134 138
0.117560 0.116578 1.755171 56 56 47
-0.054003 0.119309 1.683244 103 102 97
0.032647 0.124490 1.727874 65 65 62
0.100074 0.124246 1.742602 110 111 106
0.140871 0.122620 1.761568 189 187 175
0.537584 0.115840 1.859094 206 207 206
-0.539788 0.142713 1.625755 202 206 216
-0.021630 0.151489 1.927749 193 193 202
-0.121929 0.133182 1.669952 168 164 158
0.177045 0.129819 1.774075 130 143 176
-0.040983 0.131670 1.684635 45 46 45
0.073948 0.137213 1.728649 120 121 126
0.135096 0.140425 1.754441 193 196 212
0.146725 0.138777 1.758288 117 114 109
0.191590 0.138316 1.779621 181 180 177
0.170638 0.146029 1.771982 205 207 197
-0.099906 0.152951 1.669323 85 75 64
0.132818 0.148664 1.759295 122 120 103
0.124712 0.153002 1.751485 190 190 189
0.249131 0.146769 1.731856 53 49 57
-0.198352 0.170449 1.710441 42 41 35
0.084795 0.166440 1.721364 179 182 185
0.091166 0.164430 1.724421 103 102 104
-0.082558 0.211415 1.988523 224 224 228
-0.057444 0.171887 1.671177 157 157 160
0.122911 0.175738 1.739278 68 72 88
0.534099 0.170236 1.849822 172 175 180
0.054896 0.180486 1.716690 180 176 177
0.222533 0.174851 1.740650 100 98 103
0.139359 0.186087 1.740258 212 213 218
0.119875 0.189809 1.732987 110 109 106
0.529554 0.195476 1.848392 175 176 170
-0.008171 0.234918 1.973594 170 171 167
0.417285 0.203031 1.843405 119 116 110
0.103385 0.201100 1.720247 106 100 89
0.543376 0.207369 1.869354 111 111 110
0.117434 0.213358 1.724367 203 202 191
0.212245 0.206664 1.729545 215 221 227
0.532171 0.217780 1.870732 36 36 56
-0.555790 0.224674 1.618347 121 123 121
-0.157119 0.224388 1.696138 45 41 41
0.144319 0.216876 1.726555 134 130 119
-0.265029 0.226138 1.657222 56 54 49
0.202464 0.217369 1.721319 84 86 108
-0.027615 0.231843 1.686355 177 182 182
-0.204819 0.237554 1.693595 54 52 53
-0.145365 0.239226 1.671571 163 163 166
0.503624 0.245091 1.878226 58 57 52
-0.063067 0.233654 1.674645 142 140 129
0.252764 0.243385 1.766524 80 78 74
0.279191 0.260405 1.780807 178 178 180
-0.452184 0.257799 1.584395 110 111 119
0.526981 0.272516 1.844830 62 62 87
0.110160 0.265531 1.695108 126 127 117
-0.456718 0.276862 1.615384 153 154 159
0.536275 0.290488 1.867733 70 76 99
0.028936 0.272119 1.672885 158 152 143
0.046850 0.269435 1.670516 162 161 165
0.224743 0.293840 1.744747 187 188 186
0.417505 0.302387 1.820464 115 113 98
-0.466944 0.284941 1.578159 183 183 191
-0.228103 0.291773 1.637657 185 191 213
0.062241 0.289836 1.670170 185 183 182
-0.190131 0.297356 1.658747 89 85 81
0.088428 0.289845 1.659610 128 121 127
0.251692 0.308233 1.770895 172 171 149
-0.122990 0.292298 1.648898 182 177 169
-0.412265 0.308656 1.645847 122 124 117
-0.228402 0.300437 1.630548 111 110 114
0.241882 0.311138 1.757768 147 147 124
0.478930 0.320526 1.843806 129 131 127
0.231823 0.315428 1.750579 207 212 219
0.332308 0.319240 1.783545 78 74 66
0.583276 0.355148 1.998354 64 64 61
0.546203 0.335058 1.862788 181 182 176
0.105107 0.306503 1.670524 163 162 155
0.186367 0.315519 1.736399 209 211 205
-0.133127 0.306395 1.639692 221 223 229
0.225280 0.319573 1.743184 102 110 136
-0.592106 0.440552 2.155334 113 115 107
-0.204485 0.313199 1.640961 186 187 194
0.212692 0.320623 1.738262 212 216 227
-0.099307 0.322629 1.673286 188 189 187
0.250170 0.331632 1.760130 119 119 130
0.530087 0.339905 1.830059 166 167 166
0.543328 0.348211 1.839373 80 80 71
-0.144530 0.323198 1.640812 213 212 211
0.191703 0.329558 1.724975 159 158 147
0.346397 0.340530 1.774846 168 162 151
0.408275 0.349272 1.800549 96 90 84
-0.103278 0.326959 1.656004 114 108 98
0.108599 0.338988 1.722299 39 38 33
-0.213117 0.336608 1.645676 46 46 39
0.548947 0.366401 1.824570 175 175 174
0.565285 0.355349 1.819011 192 194 193
0.116602 0.349886 1.723899 131 124 118
-0.098031 0.342341 1.655466 148 149 140
0.186283 0.351822 1.728038 208 212 202
0.332128 0.413345 2.002005 213 216 221
0.453955 0.365198 1.799903 128 121 116
0.324058 0.420375 2.002830 105 103 102
0.663372 0.411093 2.000852 94 87 87
-0.323413 0.346524 1.611778 238 237 236
-0.160108 0.350905 1.642626 161 163 170
0.203259 0.361413 1.725304 210 213 208
-0.236443 0.353675 1.645094 160 162 171
-0.331433 0.352092 1.614694 250 251 253
-0.090922 0.354698 1.650452 107 109 117
-0.075273 0.358249 1.666337 132 130 114
-0.048820 0.366194 1.685972 165 164 162
0.409747 0.377823 1.789052 98 95 91
0.476207 0.374856 1.786315 71 72 60
0.225614 0.375353 1.739085 151 154 142
0.242604 0.382885 1.749957 84 84 89
0.351201 0.438930 2.004483 102 97 104
0.211275 0.375671 1.730210 205 207 202
0.453325 0.389634 1.797225 94 90 90
0.615426 0.388715 1.824622 71 74 66
0.163479 0.381026 1.729771 186 184 180
0.137772 0.384941 1.730750 176 176 176
0.175133 0.386350 1.737183 75 75 70
0.209945 0.383338 1.730233 130 126 123
-0.547278 0.364692 1.569013 218 224 230
-0.040823 0.380408 1.677574 106 108 104
0.472808 0.395350 1.781071 97 93 84
-0.354767 0.372599 1.596746 124 132 143
0.505529 0.406472 1.805319 61 61 54
-0.240110 0.381533 1.632352 130 126 122
-0.169338 0.391750 1.655686 69 64 62
-0.219476 0.393421 1.638116 183 187 193
-0.516756 0.388896 1.560594 92 90 90
0.000000 0.000000 2.000000 110 113 126
-0.256887 0.400511 1.625464 179 182 197
-0.368582 0.397834 1.586819 173 180 179
-0.331444 0.408260 1.606957 80 77 76
0.025300 0.411566 1.658897 202 210 218
0.556489 0.451965 1.814146 144 144 148
0.131349 0.419046 1.680283 149 153 142
0.192845 0.424144 1.697748 179 180 176
-0.000048 0.418872 1.651877 186 187 170
0.408705 0.514880 2.010367 211 216 222
0.556937 0.458081 1.811821 135 143 141
0.598910 0.465474 1.825920 91 94 88
-0.482709 0.408275 1.555113 207 209 223
-0.617224 0.593752 2.140258 63 69 64
0.018683 0.428038 1.651422 193 200 214
-0.393105 0.421693 1.591802 171 178 184
0.185037 0.439190 1.691288 167 169 153
-0.652258 0.599889 2.143332 180 184 193
-0.051813 0.425687 1.621588 134 135 137
-0.507123 0.420758 1.559490 78 79 78
0.181812 0.447562 1.683421 219 221 219
0.312097 0.462415 1.743015 133 134 143
0.392774 0.464671 1.756909 168 169 167
-0.258434 0.437270 1.599685 182 182 175
-0.001552 0.442012 1.645024 129 132 141
-0.517747 0.426163 1.549612 83 87 80
-0.269463 0.443769 1.600449 81 82 83
0.165271 0.565656 2.026161 57 60 89
-0.503389 0.632099 2.123580 183 191 191
0.116807 0.481729 1.683067 90 85 71
-0.262314 0.461634 1.588172 72 72 77
-0.235818 0.463180 1.606532 154 153 153
-0.216849 0.467054 1.616887 210 214 214
-0.413312 0.462340 1.580962 182 191 202
-0.385271 -0.330676 1.685772 238 237 238
-0.352166 -0.331843 1.752586 162 159 176
-0.368205 -0.290156 1.696404 213 214 215
0.072625 -0.350489 1.848123 123 126 132
0.139719 -0.255982 1.787850 68 65 58
-0.348565 -0.201972 1.670482 196 196 208
-0.074217 -0.231683 1.767347 145 142 141
0.489075 -0.281345 1.874757 115 110 107
0.348007 -0.270245 1.876894 223 224 218
0.006297 -0.211530 1.760206 57 57 49
0.508746 -0.258591 1.900140 214 215 210
-0.303458 -0.174956 1.670661 205 205 207
-0.170762 -0.202920 1.814142 121 120 116
-0.045349 -0.235860 2.045221 148 144 144
-0.037000 -0.179936 1.789567 150 154 154
-0.401798 -0.138875 1.694433 111 109 99
0.522665 -0.224957 1.922084 33 36 36
-0.392171 -0.128863 1.694120 166 166 169
-0.193722 -0.132369 1.760189 112 112 113
-0.579885 -0.088233 1.705826 98 97 103
0.449670 -0.153854 1.921140 188 187 189
0.627599 -0.149731 1.997449 65 65 68
0.323314 -0.122568 1.885042 60 61 55
-0.165520 -0.070724 1.720832 197 201 201
-0.039114 -0.084811 1.922040 163 161 156
-0.013820 -0.077112 1.772897 191 192 190
-0.410694 -0.041199 1.690338 105 104 100
0.495432 -0.103416 1.991907 205 205 205
0.115690 -0.069757 1.811577 144 138 137
-0.636879 -0.013809 1.679097 185 186 185
0.595793 -0.089120 1.985085 59 57 56
0.151849 -0.050562 1.810057 104 100 99
0.597864 -0.055784 1.993160 77 76 73
-0.218048 0.003515 1.671264 139 136 131
-0.013197 -0.009197 1.768798 61 58 58
0.523223 -0.033556 1.989873 183 184 183
0.180838 -0.012333 1.822990 164 163 157
-0.072681 0.019259 1.746439 167 165 166
0.019525 0.023248 1.754456 79 77 71
0.508646 0.001538 1.988178 97 99 106
0.525049 -0.005864 1.915123 157 157 140
0.427611 0.070581 1.982237 73 73 58
0.076369 0.107540 1.917415 195 196 191
-0.039862 0.111656 1.690521 187 188 195
-0.094331 0.139911 1.666099 232 234 239
-0.631944 0.167370 1.640186 106 105 100
-0.565170 0.174669 1.634800 191 192 196
0.504901 0.184318 1.871223 86 86 84
0.387383 0.208775 1.834927 114 112 100
-0.026590 0.218105 1.692758 179 183 191
0.255529 0.221064 1.777931 173 176 169
0.531837 0.236706 1.874638 113 116 105
-0.425577 0.240322 1.627131 123 122 122
-0.455430 0.240649 1.603513 193 202 216
0.518686 0.250269 1.847127 171 174 170
0.338880 0.292019 1.989035 164 166 167
0.509464 0.269116 1.867878 98 102 111
0.190071 0.278542 1.742579 44 43 42
0.441894 0.329072 1.995165 156 153 144
0.391825 0.304135 1.804870 22 24 27
0.433342 0.307095 1.834810 72 70 78
-0.335662 0.298865 1.639861 217 224 232
-0.284819 0.293910 1.635654 184 187 199
-0.174919 0.299878 1.670645 132 134 135
0.256053 0.318689 1.766562 202 203 201
-0.584254 0.316908 1.596959 72 73 77
0.072582 0.309838 1.666596 115 117 121
-0.109882 0.330255 1.660226 110 109 105
0.560350 0.356752 1.852318 145 150 138
0.197061 0.342260 1.732421 216 217 222
-0.036418 0.345985 1.689130 36 37 33
0.415382 0.361522 1.798040 162 155 147
0.424640 0.361548 1.792229 108 100 105
-0.050792 0.368981 1.678564 165 168 171
-0.170967 0.480012 2.065860 190 189 193
-0.153346 0.375748 1.652364 175 176 175
0.520578 0.409421 1.803753 124 118 112
0.445995 0.430231 1.790545 134 132 126
0.244766 0.428109 1.718719 211 213 216
-0.333332 0.435384 1.602209 185 189 194
-0.239841 0.455841 1.602573 189 186 187
-0.682107 -0.336497 1.758178 47 45 40
-0.453923 -0.374412 1.989089 39 36 32
-0.456062 -0.323850 1.719318 56 54 57
-0.446686 -0.397134 2.195106 112 101 96
-0.354289 -0.224686 1.673695 180 182 172
-0.339619 -0.211708 1.661388 70 62 55
-0.375083 -0.280344 2.223963 100 95 89
0.420189 -0.278908 1.866765 249 249 249
0.556639 -0.302176 2.006941 76 73 64
0.721548 -0.330408 2.102045 53 53 45
-0.185580 -0.213041 1.821583 65 65 62
-0.109759 -0.228315 1.807084 23 24 22
-0.129418 -0.203204 1.796972 58 55 48
-0.070528 -0.200283 1.785720 117 113 115
-0.095643 -0.235847 2.077872 125 121 118
0.479346 -0.237637 1.894790 77 71 65
0.025154 -0.220502 2.056503 157 157 157
-0.253343 -0.144977 1.744443 72 73 72
-0.165502 -0.155792 1.775449 147 144 145
0.371124 -0.199663 1.895627 118 112 103
0.136092 -0.172765 1.792379 66 64 55
-0.211119 -0.131167 1.750704 195 197 198
-0.476883 -0.109434 1.729036 65 63 57
-0.407898 -0.116669 1.698181 89 90 81
-0.618401 -0.096090 1.738552 64 64 52
-0.394720 -0.114543 1.696158 101 96 92
-0.549373 -0.083966 1.697295 186 185 187
0.520697 -0.175688 1.930177 115 111 103
0.336812 -0.198073 2.393691 173 177 171
0.429484 -0.157941 1.993194 81 81 80
-0.485695 -0.080466 1.729865 30 30 29
0.323347 -0.112380 1.883197 32 32 27
0.565042 -0.120131 1.946988 106 105 84
0.272491 -0.098256 1.856570 109 104 106
-0.621936 -0.026657 1.681952 50 49 42
-0.462029 -0.029433 1.685267 210 214 225
0.214778 -0.077736 1.845050 70 67 64
-0.089918 -0.054140 1.963626 75 64 64
0.301306 -0.074674 1.861124 106 111 113
-0.233675 -0.032166 1.655181 214 213 215
0.320092 -0.066099 1.846893 216 220 210
0.204130 -0.056970 1.840725 182 184 185
0.550386 -0.072410 1.954703 112 109 109
-0.205445 -0.014319 1.673733 216 216 218
-0.618870 0.011847 1.657531 34 36 34
-0.327768 0.006541 1.647250 200 201 206
0.180891 -0.019213 1.819077 107 107 91
-0.228678 0.006113 1.663059 207 210 219
0.042509 0.005206 1.758146 66 67 60
-0.123242 0.066175 1.653985 194 195 198
0.140182 0.061589 1.777737 125 124 129
-0.215735 0.081814 1.689710 29 28 24
0.073874 0.076863 1.746906 98 97 101
-0.044349 0.096007 1.711252 79 77 75
0.425467 0.091824 1.982241 79 78 64
0.288526 0.095696 1.803273 43 43 40
0.094217 0.117223 1.748231 94 93 87
-0.476837 0.136513 1.617955 148 151 153
-0.059415 0.129562 1.661422 186 185 187
0.174517 0.125466 1.771941 218 220 220
0.006233 0.152462 1.926242 152 152 151
-0.038659 0.137515 1.691388 56 54 58
0.630110 0.149092 1.992169 189 196 197
-0.133071 0.157663 1.681258 141 143 142
0.272704 0.152244 1.791776 58 59 49
-0.187857 0.167276 1.688642 76 74 61
-0.624349 0.185990 1.627587 208 213 219
-0.096050 0.167662 1.672896 215 209 207
0.177500 0.190986 1.760937 103 95 103
0.572518 0.194518 1.860607 181 183 185
-0.098027 0.204608 1.675848 204 203 207
-0.554698 0.231817 1.623616 95 97 99
-0.033511 0.245043 1.691066 194 199 207
-0.509677 0.336471 2.161438 111 103 109
0.480489 0.256315 1.866289 178 181 190
-0.043805 0.302400 2.006329 159 162 151
-0.015743 0.249604 1.679144 70 71 68
0.102609 0.242503 1.702168 98 99 91
0.537164 0.266910 1.868129 97 99 118
-0.146495 0.259146 1.674204 24 23 21
-0.220482 0.281820 1.645051 104 100 92
0.491552 0.311735 1.834529 62 63 53
0.281162 0.349462 1.994368 203 202 206
0.253109 0.313867 1.765830 173 173 174
-0.260910 0.307187 1.650393 187 185 191
-0.130285 0.303451 1.643898 216 217 221
0.011636 0.308315 1.680328 51 53 52
0.083849 0.315831 1.733260 137 137 148
0.176599 0.312774 1.738434 64 65 51
0.179014 0.324633 1.733336 56 56 49
0.160371 0.403816 2.004499 31 30 29
0.154968 0.339495 1.724235 174 175 177
0.187353 0.340675 1.731271 202 202 199
0.263561 0.348293 1.766948 87 87 62
0.458989 0.366756 1.791636 56 57 50
0.457408 0.386419 1.796693 95 94 83
0.545438 0.374769 1.785711 182 182 181
0.242125 0.382486 1.751237 84 84 89
-0.525186 0.359594 1.561690 174 179 176
-0.239165 0.371419 1.644149 117 110 107
0.114253 0.403947 1.673265 176 176 170
0.155734 0.416621 1.685088 184 186 192
-0.351874 -0.335010 1.760923 240 241 241
0.043314 -0.348625 1.980673 92 90 86
-0.368451 -0.237379 1.688353 235 234 239
0.097572 -0.272896 1.763701 183 187 181
-0.160456 -0.249758 1.819944 80 82 64
-0.045347 -0.235392 1.761600 69 68 61
0.036790 -0.245163 1.777415 54 53 52
-0.565419 -0.131533 1.739557 68 65 55
-0.061828 -0.174455 1.802875 138 138 133
-0.445312 -0.127604 1.703147 133 133 131
-0.121221 -0.152110 1.824095 41 40 35
-0.454613 -0.084637 1.707805 150 150 164
0.376318 -0.139475 1.988828 179 178 173
-0.005557 -0.071951 1.765475 187 189 188
0.454787 -0.088231 1.893515 113 111 119
0.201450 -0.047927 1.826932 203 204 203
0.469232 -0.043560 1.893205 197 198 205
-0.133652 0.008468 1.737458 40 40 38
0.351590 0.005225 1.819536 228 229 234
-0.090362 0.139293 1.668396 224 229 234
0.398275 0.183288 1.869471 128 125 120
0.490013 0.177778 1.874939 69 68 62
-0.113261 0.220846 1.689744 187 187 188
0.172957 0.235163 1.722407 209 214 224
-0.266439 0.243131 1.663076 90 90 100
-0.467017 0.291178 1.590394 204 208 214
0.463155 0.342974 1.996525 28 28 29
-0.243879 0.298746 1.621049 45 45 41
-0.127777 0.318865 1.693861 216 215 221
0.263182 0.351387 1.774414 61 63 61
-0.372864 -0.153745 1.690224 100 99 90
-0.120518 -0.181518 1.779252 123 120 118
-0.150015 -0.063886 1.743381 52 52 49
-0.294470 0.020815 1.654366 183 185 183
-0.211737 0.038945 1.683183 181 182 184
0.482438 0.006138 1.866682 148 148 136
-0.214239 0.092112 1.692606 34 33 30
-0.133418 0.107371 1.690444 24 24 23
0.060170 0.113812 1.729978 187 187 185
0.114929 0.118993 1.758917 56 56 47
0.436781 0.107907 1.908932 145 147 144
-0.266351 0.138064 1.712127 70 67 54
-0.119008 0.235531 1.702711 178 180 180
0.317925 0.290794 1.988094 129 129 131
0.284563 0.361681 1.995978 226 231 238
-0.309952 -0.201493 1.696623 216 210 212
0.361298 -0.172871 1.818798 43 42 42
-0.350475 -0.054617 1.666814 221 220 229
-0.246194 -0.086068 2.560193 212 212 215
0.401771 -0.132833 1.989620 184 183 184
0.005254 0.222557 1.690733 114 107 107
0.024228 -0.233342 1.779374 79 79 85
0.015967 -0.208056 1.758904 62 62 62
0.172312 -0.221384 1.816650 64 59 56
0.104822 -0.206282 1.991587 99 99 97
0.167015 -0.148083 1.829096 119 119 107
0.088657 -0.137478 1.776545 86 81 73
0.039447 -0.125034 1.770953 137 135 135
0.400204 -0.149035 1.991063 127 127 119
0.019984 -0.018426 1.767915 195 192 186
0.175606 -0.015766 1.945479 95 93 83
0.101479 0.072625 1.754879 215 214 214
0.390143 0.061486 1.838600 88 86 77
0.141349 0.100727 1.937170 172 172 164
0.104801 0.128623 1.748972 181 181 174
0.096205 0.135051 1.744647 192 191 190
-0.692907 0.224990 2.220045 192 197 211
0.117043 0.156055 1.742601 201 201 197
0.349749 0.191893 1.980473 68 64 61
0.131890 0.209134 1.727072 209 207 204
0.113156 0.220630 1.723065 148 143 144
0.099496 0.297096 1.665644 205 206 205
0.085272 0.336408 1.688869 100 100 89
0.110809 0.469741 2.018386 220 226 220
0.428903 -0.252570 2.002480 56 56 51
0.024482 -0.005074 1.758532 69 67 59
-0.053334 0.095065 1.878749 163 164 164
0.254359 0.093523 1.768147 141 145 154
0.218705 0.173296 1.741361 135 138 147
0.775091 0.268142 1.995604 68 65 62
-0.732222 -0.006251 2.426541 67 59 56
0.120942 -0.022113 1.793833 87 85 78
0.053565 0.100392 1.739275 184 183 185
0.113884 0.137248 1.740046 210 212 209
0.551888 0.161669 1.861173 90 91 98
0.112351 0.203462 1.727122 96 95 82
0.029421 0.386019 1.661889 199 205 209
0.169509 -0.229451 1.813289 55 53 52
0.022622 -0.240007 1.766820 64 58 58
0.498676 -0.432797 2.353575 173 164 177
0.550723 -0.332039 1.924626 215 214 218
0.475151 -0.340375 1.944186 152 147 143
0.492413 -0.323710 1.908499 224 225 225
0.582508 -0.414931 2.393122 194 194 190
0.073279 -0.341531 1.864845 60 57 62
0.575351 -0.328188 2.002016 76 71 58
0.495759 -0.406412 2.366470 151 150 144
-0.540586 -0.402915 1.982900 193 192 197
-0.366108 -0.333884 1.742364 223 223 228
0.459541 -0.305813 1.912303 110 103 105
0.361960 -0.297179 1.870741 237 234 241
-0.332022 -0.312362 1.727410 201 202 204
-0.330559 -0.320567 1.754909 37 37 29
-0.348969 -0.317846 1.732947 119 120 113
0.089328 -0.298709 1.831580 80 79 112
0.085104 -0.306511 1.857292 80 79 112
-0.576974 -0.371347 1.976464 228 229 226
0.160034 -0.281838 1.802693 179 177 196
0.697262 -0.300140 2.111957 126 123 123
0.392352 -0.275432 1.857210 197 201 184
0.381948 -0.271192 1.853258 121 123 139
0.374218 -0.267967 1.856448 217 217 224
0.421124 -0.267912 1.866670 215 210 202
0.036224 -0.270608 1.756093 213 211 205
0.001077 -0.328334 2.075193 206 206 200
0.140731 -0.267527 1.801835 200 199 198
0.430416 -0.260224 1.870526 130 124 116
0.448659 -0.235711 1.730623 202 203 194
0.047863 -0.321430 2.093293 208 209 214
0.409600 -0.257661 1.870212 100 95 83
-0.312805 -0.288955 1.785459 93 90 89
-0.445971 -0.281171 1.680292 210 209 217
0.022048 -0.258166 1.763029 66 67 56
0.438241 -0.256493 1.885084 183 183 183
0.477415 -0.248169 1.876682 83 76 78
0.529862 -0.255323 1.911556 202 204 187
-0.306800 -0.270181 1.754286 74 74 70
0.172877 -0.249499 1.805787 56 50 43
0.388860 -0.246699 1.864897 142 141 126
0.457747 -0.245258 1.891180 172 169 162
-0.313726 -0.264401 1.729937 149 146 133
0.162111 -0.241600 1.801957 150 148 144
0.442585 -0.240380 1.889295 193 190 184
-0.036939 -0.245665 1.760523 161 159 161
0.159005 -0.287205 2.151809 135 136 129
0.367201 -0.229582 1.879548 84 81 80
0.580054 -0.298423 2.486061 51 50 47
0.151243 -0.275262 2.144243 140 142 141
0.545553 -0.221112 1.921963 125 127 120
0.132754 -0.269415 2.129787 61 56 47
-0.053181 -0.254771 2.038396 61 57 55
0.113040 -0.208117 1.780158 165 166 163
-0.274795 -0.209746 1.696395 128 127 115
-0.332915 -0.206525 1.656468 71 64 53
-0.277069 -0.213096 1.764533 57 59 43
-0.264042 -0.230210 1.984990 54 46 41
0.505918 -0.245141 2.540839 72 72 85
-0.265235 -0.186835 1.682922 240 239 238
-0.340091 -0.190722 1.654005 180 185 195
0.170123 -0.178268 1.835786 86 83 81
0.602073 -0.178444 1.989697 74 76 79
-0.286085 -0.183630 1.673578 242 242 240
-0.270416 -0.179635 1.676827 137 126 120
0.231238 -0.176979 1.922301 120 120 110
0.728316 -0.168275 2.093547 133 130 134
-0.289980 -0.168237 1.659534 215 215 212
0.452996 -0.158605 1.922354 209 213 214
0.477040 -0.163104 1.933985 168 168 171
-0.266763 -0.168190 1.721699 146 146 140
0.365105 -0.151836 1.881020 51 57 69
0.571924 -0.148963 1.970431 113 115 102
0.611678 -0.142733 2.005822 19 21 20
0.628190 -0.144059 2.009637 91 90 78
0.651080 -0.147892 2.056538 90 93 86
-0.455538 -0.188155 1.966656 67 63 54
-0.262877 -0.152730 1.707568 52 49 46
0.576472 -0.135534 1.972419 62 59 63
-0.259984 -0.150704 1.720798 168 167 165
0.274989 -0.179724 2.292360 140 133 132
