0.000000 0.000000 0.000000
0.000000 0.000000 0.000000
0.000000 0.000000 0.000000
0.000000 0.000000 0.000000
0.000000 0.000000 0.000000
0.000000 0.000000 0.000000
0.000000 0.000000 0.000000
-0.191302 0.018684 0.981353
-0.191302 0.018684 0.981353
-0.191302 0.018684 0.981353
-0.191302 0.018684 0.981353
-0.191302 0.018684 0.981353
-0.345257 0.034522 1.969304
-0.565740 -0.013046 2.943535
-0.826306 -0.031182 3.908820
-1.018863 0.018582 4.888844
-1.358672 0.005644 5.829249
-1.744510 0.011450 6.751797
-2.084915 -0.010569 7.691818
-2.465391 0.028239 8.615794
-2.931782 0.015608 9.500283
-3.386140 -0.030678 10.389898
-3.933468 0.000910 11.226221
-4.581924 0.004889 11.987462
-5.218121 -0.007478 12.758890
-5.753045 -0.027649 13.603550
-6.426999 -0.055986 14.341779
-7.177924 -0.063126 15.002128
-8.004432 -0.075675 15.564913
-8.844470 -0.047046 16.106684
-9.669529 -0.037780 16.671654
-10.546675 -0.039688 17.151875
-11.453785 -0.043393 17.572752
-12.379764 -0.036124 17.950256
-13.312802 -0.026083 18.309896
-14.252394 -0.028761 18.652182
-15.210481 -0.046191 18.938127
-16.189806 -0.039315 19.140302
-17.174589 -0.035832 19.314059
-18.162990 -0.020580 19.465159
-19.159340 -0.008662 19.549681
-20.152696 -0.011669 19.664727
-21.148483 -0.011146 19.756421
-22.146833 -0.002797 19.813221
-23.145186 -0.006056 19.870507
-24.143900 -0.006516 19.921193
-25.142314 -0.027090 19.973597
-26.140722 -0.022972 20.029862
-27.140025 -0.021438 20.067164
-28.139338 -0.017889 20.104033
-29.137754 -0.011089 20.159900
-30.134427 -0.010858 20.241398
-31.133826 -0.011166 20.276069
-32.131935 -0.002313 20.336896
-33.130077 0.009936 20.396580
-34.126722 0.038931 20.473120
-35.126048 0.047996 20.508677
-36.124882 0.058518 20.555803
-37.122218 0.076680 20.626451
-38.120487 0.087981 20.684169
-39.118802 0.096868 20.741506
-40.114614 0.094290 20.832899
-41.110951 0.109485 20.917052
-42.107325 0.128736 20.999927
-43.105464 0.137433 21.060281
-44.097216 0.143882 21.188289
-45.094106 0.133190 21.266363
-46.092053 0.127292 21.330144
-47.091822 0.106130 21.333912
-48.090436 0.110209 21.386382
-49.086832 0.109910 21.471200
-50.083369 0.124146 21.553123
-51.081505 0.132809 21.613536
-52.079617 0.143627 21.673997
-53.077509 0.149018 21.738673
-54.076248 0.156069 21.788368
-55.074941 0.173308 21.836491
-56.072325 0.175243 21.908757
-57.063760 0.152492 22.037356
-58.063538 0.165508 22.020789
-59.062843 0.166136 22.058054
-60.059990 0.169051 22.133491
-61.058743 0.182996 22.181417
-62.057571 0.186454 22.229701
-63.054842 0.201583 22.301963
-64.054296 0.233132 22.292200
-65.052574 0.221211 22.349640
-66.043241 0.208147 22.485314
-67.038391 0.219588 22.583018
-68.030354 0.225867 22.709392
-69.029101 0.232360 22.759008
-70.025590 0.214155 22.840726
-71.023156 0.204576 22.909806
-72.010911 0.185657 23.064663
-73.009063 0.169544 23.123266
-74.006540 0.148874 23.191174
-75.004312 0.157209 23.257372
-76.002909 0.163758 23.309915
-77.001770 0.149986 23.355604
-78.001092 0.141689 23.391476
-78.999223 0.136033 23.452324
-79.998994 0.135079 23.473673
-80.995431 0.125045 23.557416
-81.994462 0.126228 23.601414
-82.990769 0.129778 23.687210
-83.990205 0.141152 23.718797
-84.989045 0.134602 23.766509
-85.987885 0.156210 23.809520
-86.984537 0.139869 23.889636
-87.982361 0.142336 23.955524
-88.980274 0.144925 24.020045
-89.979972 0.147528 24.044485
-90.978622 0.139432 24.095799
-91.976964 0.127018 24.151992
-92.975051 0.132540 24.213575
-93.969378 0.141401 24.319576
-94.964339 0.148436 24.419590
-95.958591 0.150154 24.526639
-96.948292 0.135002 24.668983
-97.940291 0.096757 24.789301
-98.926704 0.049241 24.946565
-99.917667 0.073958 25.078404
-100.883041 0.071796 25.339261
-101.856448 0.090730 25.567563
-102.826897 0.061320 25.807068
-103.772940 0.029401 26.129536
-104.666381 0.011252 26.578348
-105.536353 0.019308 27.071385
-106.326638 0.026898 27.684077
-107.143314 0.038729 28.261052
-107.905157 0.055151 28.908606
-108.632139 0.055329 29.595262
-109.393651 0.069733 30.243253
-110.042390 0.087369 31.004059
-110.635462 0.102661 31.809063
-111.205926 0.041324 32.628092
-111.772494 0.058904 33.451920
-112.264277 0.067198 34.322598
-112.723839 0.103655 35.209995
-113.071515 0.086149 36.147447
-113.398996 0.102329 37.092166
-113.688045 0.111329 38.049438
-113.868748 0.073381 39.032243
-114.094722 0.046186 40.005997
-114.317609 0.042258 40.980833
-114.474594 0.022660 41.968240
-114.605500 -0.010161 42.959091
-114.750839 -0.014702 43.948463
-114.822624 -0.010532 44.945874
-114.890040 -0.018892 45.943564
-114.974769 -0.024366 46.939953
-115.053170 -0.038737 47.936771
-115.011502 -0.046590 48.935872
-115.038414 -0.057990 49.935445
-115.047623 -0.073971 50.935275
-115.058920 -0.086451 51.935133
-115.061364 -0.095703 52.935087
-115.054938 -0.100009 53.935057
-115.031012 -0.110383 54.934717
